ply
format ascii 1.0
comment PCL generated
element vertex 126
property float x
property float y
property float z
element face 0
element camera 1
property float view_px
property float view_py
property float view_pz
property float x_axisx
property float x_axisy
property float x_axisz
property float y_axisx
property float y_axisy
property float y_axisz
property float z_axisx
property float z_axisy
property float z_axisz
property float focal
property float scalex
property float scaley
property float centerx
property float centery
property int viewportx
property int viewporty
property float k1
property float k2
end_header
104.87889 18.08102 61.053478
102.93063 20.636635 55.989574
100.48348 23.335762 51.225521
97.561897 26.151434 46.808926
94.195061 29.055519 42.783913
90.416618 32.018997 39.190704
86.264328 35.012264 36.065193
81.779655 38.005409 33.438622
77.007439 40.968521 31.337215
71.995338 43.872002 29.78199
66.793457 46.686829 28.788475
61.453743 49.384892 28.3666
56.029568 51.939224 28.520573
50.575123 54.324303 29.248867
45.144905 56.516304 30.544197
39.793167 58.493317 32.39362
34.573395 60.235596 34.778671
29.537735 61.725727 37.675499
24.7365 62.948826 41.055168
20.217667 63.892666 44.883919
16.026379 64.547821 49.123482
12.204525 64.907745 53.731506
8.7902832 64.968842 58.661942
5.8177643 64.730499 63.865536
3.3166885 64.195099 69.290291
1.3120193 63.367989 74.882004
-0.17619324 62.257439 80.584801
-1.133091 60.874538 86.341705
-1.5491066 59.233109 92.095192
-1.4200859 57.349548 97.787781
-0.74732208 55.242683 103.36259
0.46247482 52.933556 108.76392
2.1972084 50.445244 113.9378
4.4395409 47.802608 118.83253
7.1670761 45.032055 123.39922
10.352562 42.161263 127.59222
13.964165 39.218918 131.36963
17.965797 36.234417 134.69376
22.317484 33.237587 137.53131
26.97574 30.258362 139.854
31.89402 27.326513 141.63861
37.023186 24.471336 142.86729
42.311985 21.721359 143.52777
47.707577 19.104059 143.61345
53.156048 16.645586 143.12347
58.602959 14.370504 142.06274
63.993889 12.301544 140.44185
69.274971 10.459379 138.27698
74.39344 8.8624153 135.58978
79.298149 7.5266132 132.4071
83.940102 6.465313 128.76074
88.272903 5.6891212 124.68713
92.253273 5.2057991 120.22697
95.841438 5.0201645 115.42482
99.001549 5.1340828 110.32867
101.70203 5.5464096 104.98944
103.91589 6.253027 99.460472
105.62101 7.2468758 93.797005
106.80037 8.5180206 88.055634
107.44216 10.05377 82.293732
107.53999 11.838772 76.568848
107.09288 13.855192 70.93821
106.10529 16.082886 65.458054
105.87889 11.08102 75.053482
120.93063 2.6366348 53.989574
99.483482 16.335762 52.225521
104.5619 42.151436 35.808926
106.19506 31.055519 41.783913
97.416618 26.018997 50.190704
93.264328 16.012264 21.065193
83.779655 25.005409 20.438622
90.007439 48.968521 24.337215
54.995338 24.872002 32.78199
82.793457 61.686829 38.788475
61.453743 51.384892 24.3666
66.029572 60.939224 18.520573
37.575123 62.324303 38.248867
61.144905 56.516304 36.544197
35.793167 39.493317 38.39362
16.573395 58.235596 25.778671
48.537735 43.725727 41.675499
11.7365 68.948822 42.055168
10.217667 54.892666 61.883919
22.026379 54.547821 48.123482
27.204525 78.907745 64.731506
9.7902832 60.968842 52.661942
-1.1822357 47.730499 46.865536
8.3166885 55.195099 78.290291
3.3120193 57.367989 80.882004
-0.17619324 73.257439 78.584801
-5.133091 43.874538 78.341705
0.4508934 69.233109 103.09519
-17.420086 58.349548 105.78778
-1.7473221 69.242683 116.36259
0.46247482 60.933556 101.76392
-5.8027916 53.445244 106.9378
17.439541 33.802608 109.83253
7.1670761 54.032055 104.39922
6.352562 34.161263 131.59222
-1.0358353 34.218918 118.36963
31.965797 39.234417 142.69376
22.317484 17.237587 155.53131
35.975739 47.258362 151.854
13.89402 46.326515 131.63861
22.023186 32.471336 158.86729
54.311985 36.721359 151.52777
62.707577 32.104057 152.61345
52.156048 -1.354414 141.12347
41.602959 -1.6294956 154.06274
63.993889 2.3015442 143.44185
68.274971 19.459379 123.27698
76.39344 3.8624153 127.58978
91.298149 -4.4733868 123.4071
99.940102 -2.534687 120.76074
102.2729 -3.3108788 125.68713
74.253273 -7.7942009 139.22697
88.841438 14.020164 106.42482
112.00155 20.134083 93.328674
109.70203 7.5464096 89.989441
87.915886 -4.746973 93.460472
110.62101 20.246876 81.797005
119.80037 24.518021 89.055634
108.44216 6.0537701 66.293732
122.53999 21.838772 63.568848
119.09288 32.855194 83.93821
101.10529 25.082886 71.458054
0 0 0 1 0 0 0 1 0 0 0 1 0 0 0 0 0 126 1 0 0
